ply
format ascii 1.0
element vertex 1162
property float x
property float y
property float z
property uchar red
property uchar green
property uchar blue
end_header
2.677732 -2.113416 -5.665284 61 61 61 
2.675843 -2.103235 -5.637990 62 62 62 
2.679478 -2.097461 -5.622512 62 62 62 
2.683094 -2.091718 -5.607119 63 63 63 
2.694045 -2.091718 -5.607119 64 64 64 
2.688435 -2.078912 -5.572789 64 64 64 
2.699320 -2.078912 -5.572789 64 64 64 
2.688259 -2.062078 -5.527665 64 64 64 
2.664890 -2.035976 -5.457695 63 63 63 
2.654329 -2.019828 -5.414409 62 62 62 
2.652632 -2.010526 -5.389474 62 62 62 
2.650949 -2.001310 -5.364768 61 61 61 
2.661428 -2.001310 -5.364768 60 60 60 
2.571429 -1.819048 -4.876191 82 82 82 
2.574822 -1.814727 -4.864608 83 83 83 
2.579727 -1.811500 -4.855958 88 88 88 
2.589212 -1.811500 -4.855958 88 88 88 
5.478368 -3.777503 -10.126081 85 85 85 
5.477832 -3.763547 -10.088670 84 84 84 
5.511111 -3.772840 -10.113581 84 84 84 
15.944056 -10.685315 -28.643356 88 88 88 
15.888889 -10.611111 -28.444445 92 92 92 
15.944445 -10.611111 -28.444445 95 95 95 
15.889655 -10.537931 -28.248276 85 85 85 
15.890035 -10.501719 -28.151203 83 83 83 
15.782313 -10.394558 -27.863945 81 81 81 
15.783051 -10.359322 -27.769491 79 79 79 
15.837288 -10.359322 -27.769491 79 79 79 
15.891525 -10.359322 -27.769491 81 81 81 
15.945763 -10.359322 -27.769491 83 83 83 
16.000000 -10.359322 -27.769491 85 85 85 
16.163822 -10.430034 -27.959044 90 90 90 
16.273973 -10.465754 -28.054794 90 90 90 
-11.771428 -10.971429 -29.257143 103 103 103 
-11.714286 -10.971429 -29.257143 121 121 121 
-11.657143 -10.971429 -29.257143 160 160 160 
-11.600000 -10.971429 -29.257143 201 201 201 
-11.542857 -10.971429 -29.257143 231 231 231 
-11.485714 -10.971429 -29.257143 245 245 245 
-11.428572 -10.971429 -29.257143 242 242 242 
-11.371428 -10.971429 -29.257143 241 241 241 
-11.000000 -10.666667 -28.444445 241 241 241 
-10.757679 -10.484642 -27.959044 240 240 240 
-10.666667 -10.448979 -27.863945 239 239 239 
-10.612245 -10.448979 -27.863945 238 238 238 
-10.381271 -10.274247 -27.397993 238 238 238 
-10.225165 -10.172186 -27.125828 238 238 238 
-10.105263 -10.105263 -26.947369 229 229 229 
-10.019672 -10.072131 -26.859016 221 221 221 
-9.870130 -9.974026 -26.597403 216 216 216 
-2.362500 -2.400000 -6.400000 223 223 223 
-2.348166 -2.398126 -6.395004 242 242 242 
-2.337500 -2.400000 -6.400000 255 255 255 
-2.326818 -2.401876 -6.405004 247 247 247 
-2.319749 -2.407523 -6.420063 231 231 231 
-2.314466 -2.415094 -6.440251 233 233 233 
-2.309148 -2.422713 -6.460568 172 172 172 
-2.301976 -2.428458 -6.475889 114 114 114 
-2.291139 -2.430380 -6.481013 113 113 113 
-2.276680 -2.428458 -6.475889 163 163 163 
-2.264032 -2.428458 -6.475889 215 215 215 
-2.251383 -2.428458 -6.475889 240 240 240 
-2.238735 -2.428458 -6.475889 244 244 244 
-1.659187 -1.862947 -4.967859 254 254 254 
-1.649485 -1.862947 -4.967859 246 246 246 
-1.638788 -1.861818 -4.964849 236 236 236 
-1.621230 -1.852835 -4.940893 246 246 246 
-1.610609 -1.851718 -4.937914 242 242 242 
-1.725699 -2.045273 -5.454061 241 241 241 
-1.713906 -2.043912 -5.450432 241 241 241 
-1.704394 -2.045273 -5.454061 222 222 222 
-1.697131 -2.049366 -5.464977 225 225 225 
-1.688711 -2.052104 -5.472278 234 234 234 
-1.700745 -2.079892 -5.546378 245 245 245 
-1.685348 -2.074274 -5.531398 249 249 249 
-1.664430 -2.061745 -5.497987 247 247 247 
-1.647059 -2.053476 -5.475936 246 246 246 
-1.626578 -2.041196 -5.443189 247 247 247 
-1.536323 -1.940619 -5.174984 247 247 247 
-1.524290 -1.938170 -5.168454 245 245 245 
-1.513241 -1.936948 -5.165195 241 241 241 
-1.503153 -1.936948 -5.165195 238 238 238 
-1.493064 -1.936948 -5.165195 242 242 242 
-1.585685 -2.114246 -5.637990 253 253 253 
-1.574673 -2.114246 -5.637990 233 233 233 
-1.564738 -2.115702 -5.641873 203 203 203 
-1.559088 -2.123013 -5.661368 172 172 172 
-1.551247 -2.127424 -5.673130 152 152 152 
-1.542302 -2.130374 -5.680999 145 145 145 
-1.532269 -2.131853 -5.684941 148 148 148 
-1.522222 -2.133333 -5.688889 153 153 153 
-1.511111 -2.133333 -5.688889 136 136 136 
-1.500000 -2.133333 -5.688889 135 135 135 
-1.488889 -2.133333 -5.688889 133 133 133 
-1.479833 -2.136300 -5.696801 132 132 132 
-2.139037 -3.285562 -8.761497 236 236 236 
-2.117396 -3.278548 -8.742796 241 241 241 
-2.098081 -3.275053 -8.733476 245 245 245 
-2.078807 -3.271565 -8.724174 234 234 234 
-2.059574 -3.268085 -8.714893 217 217 217 
-2.046908 -3.275053 -8.733476 185 185 185 
-2.034188 -3.282051 -8.752137 134 134 134 
-2.017094 -3.282051 -8.752137 86 86 86 
-2.034783 -3.339130 -8.904347 66 66 66 
-2.017391 -3.339130 -8.904347 52 52 52 
-2.000000 -3.339130 -8.904347 33 33 33 
-2.017699 -3.398230 -9.061947 28 28 28 
-2.000000 -3.398230 -9.061947 38 38 38 
-1.982301 -3.398230 -9.061947 23 23 23 
-1.964602 -3.398230 -9.061947 18 18 18 
-1.946903 -3.398230 -9.061947 12 12 12 
-1.929204 -3.398230 -9.061947 10 10 10 
-1.911504 -3.398230 -9.061947 11 11 11 
-2.249671 -4.036794 -10.764783 10 10 10 
-2.145833 -4.000000 -10.666667 10 10 10 
-2.125000 -4.000000 -10.666667 10 10 10 
-2.106910 -4.005215 -10.680573 10 10 10 
-1.942999 -3.806691 -10.151177 10 10 10 
-1.901961 -3.764706 -10.039216 10 10 10 
-1.882353 -3.764706 -10.039216 7 7 7 
-1.351699 -2.820937 -7.522498 10 10 10 
-1.304659 -2.752688 -7.340502 11 11 11 
-1.286863 -2.745308 -7.320822 15 15 15 
-1.272565 -2.745308 -7.320822 20 20 20 
-1.288198 -2.810613 -7.494968 51 51 51 
-1.273559 -2.810613 -7.494968 46 46 46 
-1.235188 -2.757630 -7.353681 21 21 21 
-1.220826 -2.757630 -7.353681 9 9 9 
-1.219601 -2.787659 -7.433757 19 19 19 
-1.209472 -2.797814 -7.460838 12 12 12 
-1.255502 -2.939713 -7.839234 3 3 3 
-1.240191 -2.939713 -7.839234 15 15 15 
-1.224880 -2.939713 -7.839234 15 15 15 
-1.209569 -2.939713 -7.839234 10 10 10 
-1.196548 -2.945350 -7.854267 9 9 9 
-1.188042 -2.962392 -7.899711 12 12 12 
-1.179437 -2.979631 -7.945684 13 13 13 
-1.169591 -2.994152 -7.984406 18 18 18 
-1.155122 -2.997073 -7.992195 39 39 39 
-1.176234 -3.093656 -8.249748 61 61 61 
-1.160121 -3.093656 -8.249748 70 70 70 
-1.142857 -3.090543 -8.241448 75 75 75 
-1.126761 -3.090543 -8.241448 80 80 80 
-1.112903 -3.096774 -8.258064 82 82 82 
-1.105691 -3.121951 -8.325203 81 81 81 
-1.089431 -3.121951 -8.325203 81 81 81 
-1.073171 -3.121951 -8.325203 84 84 84 
-1.056911 -3.121951 -8.325203 87 87 87 
-0.975418 -3.020649 -8.055064 82 82 82 
-0.953125 -3.000000 -8.000000 82 82 82 
-0.937500 -3.000000 -8.000000 82 82 82 
-0.921875 -3.000000 -8.000000 82 82 82 
-0.906250 -3.000000 -8.000000 82 82 82 
-0.890625 -3.000000 -8.000000 82 82 82 
-0.875000 -3.000000 -8.000000 82 82 82 
-0.859375 -3.000000 -8.000000 82 82 82 
-0.843750 -3.000000 -8.000000 82 82 82 
-0.828125 -3.000000 -8.000000 82 82 82 
-0.812500 -3.000000 -8.000000 82 82 82 
-0.796875 -3.000000 -8.000000 82 82 82 
-0.781250 -3.000000 -8.000000 82 82 82 
-0.759690 -2.976744 -7.937984 82 82 82 
-0.740598 -2.962392 -7.899711 81 81 81 
-0.725169 -2.962392 -7.899711 123 123 123 
-0.711111 -2.968116 -7.914976 208 208 208 
-0.695652 -2.968116 -7.914976 249 249 249 
-0.680851 -2.970986 -7.922631 230 230 230 
-0.665377 -2.970986 -7.922631 241 241 241 
-0.649903 -2.970986 -7.922631 255 255 255 
-0.633816 -2.968116 -7.914976 236 236 236 
-0.617761 -2.965251 -7.907336 236 236 236 
-0.602317 -2.965251 -7.907336 255 255 255 
-0.587440 -2.968116 -7.914976 233 233 233 
-0.145455 -2.148252 -5.728672 210 210 210 
-0.134266 -2.148252 -5.728672 214 214 214 
-0.122392 -2.136300 -5.696801 198 198 198 
-0.113395 -2.177179 -5.805811 192 192 192 
-0.079545 -2.181818 -5.818182 188 188 188 
-0.068182 -2.181818 -5.818182 176 176 176 
-0.056818 -2.181818 -5.818182 165 165 165 
-0.045455 -2.181818 -5.818182 158 158 158 
-0.034091 -2.181818 -5.818182 156 156 156 
0.062500 -2.000000 -5.333333 157 157 157 
0.072917 -2.000000 -5.333333 156 156 156 
0.083333 -2.000000 -5.333333 154 154 154 
0.093750 -2.000000 -5.333333 153 153 153 
0.104167 -2.000000 -5.333333 151 151 151 
0.114583 -2.000000 -5.333333 149 149 149 
0.125000 -2.000000 -5.333333 147 147 147 
0.135417 -2.000000 -5.333333 145 145 145 
0.145833 -2.000000 -5.333333 143 143 143 
0.156250 -2.000000 -5.333333 142 142 142 
0.166667 -2.000000 -5.333333 140 140 140 
0.177083 -2.000000 -5.333333 141 141 141 
0.187500 -2.000000 -5.333333 142 142 142 
0.197917 -2.000000 -5.333333 142 142 142 
0.209287 -2.009156 -5.357750 141 141 141 
0.220039 -2.011788 -5.364768 140 140 140 
0.230517 -2.011788 -5.364768 138 138 138 
0.240680 -2.009156 -5.357750 137 137 137 
0.250980 -2.007843 -5.354249 133 133 133 
0.261438 -2.007843 -5.354249 133 133 133 
0.271895 -2.007843 -5.354249 131 131 131 
0.281250 -2.000000 -5.333333 127 127 127 
0.291667 -2.000000 -5.333333 123 123 123 
0.303466 -2.009156 -5.357750 118 118 118 
0.338983 -2.169492 -5.785311 113 113 113 
0.350282 -2.169492 -5.785311 110 110 110 
0.361582 -2.169492 -5.785311 108 108 108 
0.372881 -2.169492 -5.785311 111 111 111 
0.384181 -2.169492 -5.785311 113 113 113 
0.395480 -2.169492 -5.785311 108 108 108 
0.406780 -2.169492 -5.785311 100 100 100 
0.418079 -2.169492 -5.785311 95 95 95 
2.098859 -5.840304 -15.574144 114 114 114 
2.153846 -5.907692 -15.753846 114 114 114 
2.184615 -5.907692 -15.753846 114 114 114 
2.149254 -5.731343 -15.283582 110 110 110 
1.825000 -4.800000 -12.800000 112 112 112 
1.850000 -4.800000 -12.800000 114 114 114 
1.875000 -4.800000 -12.800000 115 115 115 
2.338462 -5.907692 -15.753846 116 116 116 
2.369231 -5.907692 -15.753846 116 116 116 
2.400000 -5.907692 -15.753846 115 115 115 
1.975000 -4.800000 -12.800000 114 114 114 
0.815806 -1.957935 -5.221160 108 108 108 
0.825478 -1.956688 -5.217834 103 103 103 
0.835669 -1.956688 -5.217834 96 96 96 
0.845860 -1.956688 -5.217834 90 90 90 
0.856597 -1.957935 -5.221160 88 88 88 
0.867900 -1.960434 -5.227824 89 89 89 
0.878111 -1.960434 -5.227824 93 93 93 
0.888889 -1.961686 -5.231162 96 96 96 
0.899106 -1.961686 -5.231162 101 101 101 
0.909323 -1.961686 -5.231162 100 100 100 
0.920716 -1.964194 -5.237852 92 92 92 
0.933333 -1.969231 -5.251282 76 76 76 
0.962721 -2.009156 -5.357750 56 56 56 
0.973185 -2.009156 -5.357750 40 40 40 
0.983649 -2.009156 -5.357750 33 33 33 
0.989583 -2.000000 -5.333333 32 32 32 
1.000000 -2.000000 -5.333333 40 40 40 
1.010417 -2.000000 -5.333333 44 44 44 
1.020833 -2.000000 -5.333333 45 45 45 
1.031250 -2.000000 -5.333333 39 39 39 
1.041667 -2.000000 -5.333333 31 31 31 
1.052083 -2.000000 -5.333333 25 25 25 
1.062500 -2.000000 -5.333333 26 26 26 
1.072917 -2.000000 -5.333333 29 29 29 
1.083333 -2.000000 -5.333333 22 22 22 
1.093750 -2.000000 -5.333333 23 23 23 
1.104167 -2.000000 -5.333333 25 25 25 
1.114583 -2.000000 -5.333333 28 28 28 
1.125000 -2.000000 -5.333333 31 31 31 
1.135417 -2.000000 -5.333333 34 34 34 
1.166667 -2.000000 -5.333333 36 36 36 
1.177083 -2.000000 -5.333333 37 37 37 
1.187500 -2.000000 -5.333333 38 38 38 
1.197917 -2.000000 -5.333333 39 39 39 
1.208333 -2.000000 -5.333333 39 39 39 
1.218750 -2.000000 -5.333333 38 38 38 
1.229167 -2.000000 -5.333333 37 37 37 
1.239583 -2.000000 -5.333333 36 36 36 
1.250000 -2.000000 -5.333333 33 33 33 
1.260417 -2.000000 -5.333333 33 33 33 
1.270833 -2.000000 -5.333333 34 34 34 
1.281250 -2.000000 -5.333333 35 35 35 
1.291667 -2.000000 -5.333333 36 36 36 
1.302083 -2.000000 -5.333333 37 37 37 
1.312500 -2.000000 -5.333333 38 38 38 
1.322917 -2.000000 -5.333333 38 38 38 
1.446328 -2.169492 -5.785311 42 42 42 
1.457627 -2.169492 -5.785311 41 41 41 
1.477273 -2.181818 -5.818182 40 40 40 
8.187500 -12.000000 -32.000000 39 39 39 
8.250000 -12.000000 -32.000000 37 37 37 
8.312500 -12.000000 -32.000000 36 36 36 
8.375000 -12.000000 -32.000000 35 35 35 
8.437500 -12.000000 -32.000000 35 35 35 
8.500000 -12.000000 -32.000000 40 40 40 
8.562500 -12.000000 -32.000000 44 44 44 
8.625000 -12.000000 -32.000000 50 50 50 
8.687500 -12.000000 -32.000000 57 57 57 
1.485939 -2.009156 -5.357750 68 68 68 
1.489583 -2.000000 -5.333333 68 68 68 
1.500000 -2.000000 -5.333333 62 62 62 
1.510417 -2.000000 -5.333333 62 62 62 
1.520833 -2.000000 -5.333333 63 63 63 
1.531250 -2.000000 -5.333333 63 63 63 
1.541667 -2.000000 -5.333333 64 64 64 
1.552083 -2.000000 -5.333333 65 65 65 
1.562500 -2.000000 -5.333333 65 65 65 
1.572917 -2.000000 -5.333333 66 66 66 
1.583333 -2.000000 -5.333333 68 68 68 
1.593750 -2.000000 -5.333333 70 70 70 
1.604167 -2.000000 -5.333333 72 72 72 
1.614583 -2.000000 -5.333333 73 73 73 
1.625000 -2.000000 -5.333333 74 74 74 
1.635417 -2.000000 -5.333333 74 74 74 
1.645833 -2.000000 -5.333333 73 73 73 
1.656250 -2.000000 -5.333333 72 72 72 
1.666667 -2.000000 -5.333333 72 72 72 
1.677083 -2.000000 -5.333333 72 72 72 
3.296875 -3.000000 -8.000000 70 70 70 
3.312500 -3.000000 -8.000000 70 70 70 
3.328125 -3.000000 -8.000000 70 70 70 
3.013889 -2.666667 -7.111111 70 70 70 
3.027778 -2.666667 -7.111111 70 70 70 
2.782609 -2.385093 -6.360249 70 70 70 
2.556818 -2.181818 -5.818182 70 70 70 
2.568182 -2.181818 -5.818182 70 70 70 
2.579545 -2.181818 -5.818182 70 70 70 
2.590909 -2.181818 -5.818182 70 70 70 
2.602273 -2.181818 -5.818182 70 70 70 
2.613636 -2.181818 -5.818182 70 70 70 
2.610169 -2.169492 -5.785311 70 70 70 
2.563536 -2.121547 -5.657459 62 62 62 
2.567493 -2.115702 -5.641873 62 62 62 
2.578512 -2.115702 -5.641873 62 62 62 
2.664808 -2.140767 -5.708711 62 62 62 
2.674095 -2.139276 -5.704735 62 62 62 
2.677778 -2.133333 -5.688889 62 62 62 
2.679585 -2.125952 -5.669204 63 63 63 
2.677686 -2.115702 -5.641873 64 64 64 
2.681319 -2.109890 -5.626374 64 64 64 
2.688615 -2.106996 -5.618656 65 65 65 
2.694045 -2.102669 -5.607119 66 66 66 
2.688435 -2.089796 -5.572789 66 66 66 
2.699320 -2.089796 -5.572789 64 64 64 
2.690074 -2.074274 -5.531398 64 64 64 
2.664890 -2.046636 -5.457695 63 63 63 
2.654329 -2.030403 -5.414409 62 62 62 
2.652632 -2.021053 -5.389474 62 62 62 
2.650949 -2.011788 -5.364768 61 61 61 
2.661428 -2.011788 -5.364768 60 60 60 
2.571429 -1.828571 -4.876191 81 81 81 
2.573294 -1.823145 -4.861721 81 81 81 
2.573625 -1.816676 -4.844471 81 81 81 
2.583087 -1.816676 -4.844471 82 82 82 
5.519303 -3.825654 -10.201743 89 89 89 
5.525466 -3.816149 -10.176397 90 90 90 
5.545341 -3.816149 -10.176397 91 91 91 
15.944056 -10.741259 -28.643356 86 86 86 
15.888889 -10.666667 -28.444445 84 84 84 
15.944445 -10.666667 -28.444445 82 82 82 
16.000000 -10.666667 -28.444445 93 93 93 
15.944828 -10.593103 -28.248276 89 89 89 
15.945017 -10.556701 -28.151203 83 83 83 
15.836735 -10.448979 -27.863945 78 78 78 
15.837288 -10.413559 -27.769491 77 77 77 
15.837838 -10.378378 -27.675676 79 79 79 
15.891891 -10.378378 -27.675676 84 84 84 
16.000000 -10.413559 -27.769491 87 87 87 
16.108843 -10.448979 -27.863945 83 83 83 
16.273973 -10.520548 -28.054794 87 87 87 
-11.828571 -11.028571 -29.257143 106 106 106 
-11.771428 -11.028571 -29.257143 112 112 112 
-11.714286 -11.028571 -29.257143 139 139 139 
-11.657143 -11.028571 -29.257143 182 182 182 
-11.600000 -11.028571 -29.257143 219 219 219 
-11.542857 -11.028571 -29.257143 238 238 238 
-11.485714 -11.028571 -29.257143 242 242 242 
-11.307421 -10.911661 -28.946997 242 242 242 
-11.211267 -10.873240 -28.845070 243 243 243 
-11.000000 -10.722222 -28.444445 244 244 244 
-10.831615 -10.611684 -28.151203 244 244 244 
-10.703072 -10.539249 -27.959044 244 244 244 
-10.612245 -10.503402 -27.863945 243 243 243 
-10.381271 -10.327759 -27.397993 241 241 241 
-10.225165 -10.225165 -27.125828 241 241 241 
-10.105263 -10.157895 -26.947369 199 199 199 
-10.019672 -10.124590 -26.859016 184 184 184 
-9.870130 -10.025974 -26.597403 172 172 172 
-2.356976 -2.406859 -6.385035 179 179 179 
-2.344505 -2.406859 -6.385035 204 204 204 
-2.337500 -2.412500 -6.400000 227 227 227 
-2.325000 -2.412500 -6.400000 234 234 234 
-2.316119 -2.416276 -6.410016 229 229 229 
-2.309020 -2.421961 -6.425098 158 158 158 
-2.307329 -2.433412 -6.455477 130 130 130 
-2.301976 -2.441107 -6.475889 113 113 113 
-2.289328 -2.441107 -6.475889 136 136 136 
-2.276680 -2.441107 -6.475889 187 187 187 
-2.264032 -2.441107 -6.475889 230 230 230 
-2.251383 -2.441107 -6.475889 245 245 245 
-1.659187 -1.872650 -4.967859 242 242 242 
-1.648485 -1.871515 -4.964849 247 247 247 
-1.629897 -1.861362 -4.937914 249 249 249 
-1.629091 -1.871515 -4.964849 246 246 246 
-2.370896 -2.740018 -7.268856 245 245 245 
-1.736351 -2.055925 -5.454061 244 244 244 
-1.724551 -2.054558 -5.450432 242 242 242 
-1.712766 -2.053191 -5.446808 237 237 237 
-1.702128 -2.053191 -5.446808 178 178 178 
-1.696000 -2.058667 -5.461333 189 189 189 
-1.686458 -2.060040 -5.464977 210 210 210 
-1.682518 -2.068319 -5.486939 232 232 232 
-1.675168 -2.072483 -5.497987 247 247 247 
-1.658863 -2.065552 -5.479599 251 251 251 
-1.644860 -2.061415 -5.468625 250 250 250 
-1.626578 -2.051827 -5.443189 249 249 249 
-1.606341 -2.039630 -5.410832 243 243 243 
-1.523329 -1.947037 -5.165195 244 244 244 
-1.513241 -1.947037 -5.165195 243 243 243 
-1.503153 -1.947037 -5.165195 243 243 243 
-1.575758 -2.126722 -5.641873 228 228 228 
-1.564738 -2.126722 -5.641873 190 190 190 
-1.559088 -2.134070 -5.661368 163 163 163 
-1.550173 -2.137024 -5.669204 153 153 153 
-1.541234 -2.139986 -5.677062 151 151 151 
-1.531207 -2.141470 -5.680999 150 150 150 
-1.522222 -2.144444 -5.688889 147 147 147 
-1.511111 -2.144444 -5.688889 142 142 142 
-1.500000 -2.144444 -5.688889 140 140 140 
-1.488889 -2.144444 -5.688889 138 138 138 
-2.153846 -3.299145 -8.752137 240 240 240 
-2.132196 -3.292111 -8.733476 238 238 238 
-2.112886 -3.288605 -8.724174 243 243 243 
-2.093617 -3.285106 -8.714893 243 243 243 
-2.074389 -3.281615 -8.705632 224 224 224 
-2.057386 -3.281615 -8.705632 201 201 201 
-2.040383 -3.281615 -8.705632 157 157 157 
-2.034188 -3.299145 -8.752137 112 112 112 
-2.017094 -3.299145 -8.752137 72 72 72 
-2.034783 -3.356522 -8.904347 58 58 58 
-2.017391 -3.356522 -8.904347 48 48 48 
-2.000000 -3.356522 -8.904347 32 32 32 
-2.017699 -3.415929 -9.061947 29 29 29 
-2.000000 -3.415929 -9.061947 37 37 37 
-1.982301 -3.415929 -9.061947 22 22 22 
-1.964602 -3.415929 -9.061947 17 17 17 
-1.946903 -3.415929 -9.061947 12 12 12 
-1.929204 -3.415929 -9.061947 10 10 10 
-1.911504 -3.415929 -9.061947 11 11 11 
-2.249671 -4.057819 -10.764783 11 11 11 
-2.228647 -4.057819 -10.764783 8 8 8 
-2.207622 -4.057819 -10.764783 5 5 5 
-2.145833 -4.020833 -10.666667 10 10 10 
-2.125000 -4.020833 -10.666667 10 10 10 
-2.106910 -4.026076 -10.680573 10 10 10 
-1.942999 -3.826518 -10.151177 10 10 10 
-1.899633 -3.779682 -10.026928 10 10 10 
-1.880049 -3.779682 -10.026928 7 7 7 
-1.840194 -3.738499 -9.917676 10 10 10 
-1.351699 -2.835629 -7.522498 10 10 10 
-1.304659 -2.767025 -7.340502 11 11 11 
-1.286863 -2.759607 -7.320822 15 15 15 
-1.272565 -2.759607 -7.320822 20 20 20 
-1.289377 -2.827839 -7.501832 49 49 49 
-1.274725 -2.827839 -7.501832 46 46 46 
-1.236298 -2.774483 -7.360288 22 22 22 
-1.221923 -2.774483 -7.360288 9 9 9 
-1.220708 -2.804723 -7.440509 18 18 18 
-1.209472 -2.812386 -7.460838 13 13 13 
-1.254302 -2.952199 -7.831740 4 4 4 
-1.239006 -2.952199 -7.831740 15 15 15 
-1.223709 -2.952199 -7.831740 15 15 15 
-1.209569 -2.955024 -7.839234 10 10 10 
-1.196548 -2.960690 -7.854267 9 9 9 
-1.188042 -2.977821 -7.899711 12 12 12 
-1.179437 -2.995150 -7.945684 13 13 13 
-1.168452 -3.006816 -7.976631 18 18 18 
-1.155122 -3.012683 -7.992195 38 38 38 
-1.176234 -3.109768 -8.249748 60 60 60 
-1.160121 -3.109768 -8.249748 70 70 70 
-1.142857 -3.106640 -8.241448 75 75 75 
-1.126761 -3.106640 -8.241448 80 80 80 
-1.112903 -3.112903 -8.258064 82 82 82 
-1.105691 -3.138211 -8.325203 81 81 81 
-1.089431 -3.138211 -8.325203 81 81 81 
-1.073171 -3.138211 -8.325203 83 83 83 
-1.056911 -3.138211 -8.325203 86 86 86 
-0.975418 -3.036381 -8.055064 82 82 82 
-0.953125 -3.015625 -8.000000 82 82 82 
-0.937500 -3.015625 -8.000000 82 82 82 
-0.921875 -3.015625 -8.000000 82 82 82 
-0.906250 -3.015625 -8.000000 82 82 82 
-0.890625 -3.015625 -8.000000 82 82 82 
-0.875000 -3.015625 -8.000000 82 82 82 
-0.859375 -3.015625 -8.000000 82 82 82 
-0.843750 -3.015625 -8.000000 82 82 82 
-0.828125 -3.015625 -8.000000 82 82 82 
-0.812500 -3.015625 -8.000000 82 82 82 
-0.796875 -3.015625 -8.000000 82 82 82 
-0.781250 -3.015625 -8.000000 82 82 82 
-0.759690 -2.992248 -7.937984 82 82 82 
-0.739172 -2.972089 -7.884504 82 82 82 
-0.723773 -2.972089 -7.884504 132 132 132 
-0.709740 -2.977821 -7.899711 218 218 218 
-0.694310 -2.977821 -7.899711 254 254 254 
-0.678881 -2.977821 -7.899711 234 234 234 
-0.663452 -2.977821 -7.899711 242 242 242 
-0.648649 -2.980695 -7.907336 255 255 255 
-0.633205 -2.980695 -7.907336 240 240 240 
-0.617165 -2.977821 -7.899711 246 246 246 
-0.601736 -2.977821 -7.899711 251 251 251 
-0.586307 -2.977821 -7.899711 217 217 217 
-0.144344 -2.142956 -5.684941 204 204 204 
-0.133241 -2.142956 -5.684941 213 213 213 
-0.122137 -2.142956 -5.684941 202 202 202 
-0.111034 -2.142956 -5.684941 197 197 197 
-0.079545 -2.193182 -5.818182 190 190 190 
-0.068182 -2.193182 -5.818182 179 179 179 
-0.056818 -2.193182 -5.818182 168 168 168 
-0.045455 -2.193182 -5.818182 161 161 161 
-0.034091 -2.193182 -5.818182 158 158 158 
-0.022727 -2.193182 -5.818182 159 159 159 
0.072917 -2.010417 -5.333333 162 162 162 
0.083333 -2.010417 -5.333333 154 154 154 
0.093750 -2.010417 -5.333333 153 153 153 
0.104167 -2.010417 -5.333333 152 152 152 
0.114583 -2.010417 -5.333333 150 150 150 
0.125000 -2.010417 -5.333333 147 147 147 
0.135417 -2.010417 -5.333333 145 145 145 
0.145833 -2.010417 -5.333333 144 144 144 
0.156250 -2.010417 -5.333333 143 143 143 
0.166667 -2.010417 -5.333333 141 141 141 
0.177083 -2.010417 -5.333333 141 141 141 
0.187500 -2.010417 -5.333333 141 141 141 
0.197917 -2.010417 -5.333333 141 141 141 
0.208333 -2.010417 -5.333333 140 140 140 
0.219751 -2.019621 -5.357750 139 139 139 
0.230216 -2.019621 -5.357750 138 138 138 
0.240052 -2.014351 -5.343771 137 137 137 
0.250000 -2.010417 -5.333333 135 135 135 
0.260417 -2.010417 -5.333333 134 134 134 
0.270833 -2.010417 -5.333333 132 132 132 
0.281250 -2.010417 -5.333333 129 129 129 
0.291667 -2.010417 -5.333333 125 125 125 
0.327684 -2.180791 -5.785311 120 120 120 
0.338983 -2.180791 -5.785311 116 116 116 
0.350282 -2.180791 -5.785311 113 113 113 
0.361582 -2.180791 -5.785311 106 106 106 
0.372881 -2.180791 -5.785311 110 110 110 
0.384181 -2.180791 -5.785311 112 112 112 
0.395480 -2.180791 -5.785311 109 109 109 
0.406780 -2.180791 -5.785311 102 102 102 
0.418079 -2.180791 -5.785311 97 97 97 
2.184615 -5.938461 -15.753846 112 112 112 
1.819905 -4.878357 -12.941548 112 112 112 
1.825000 -4.825000 -12.800000 113 113 113 
1.850000 -4.825000 -12.800000 114 114 114 
1.875000 -4.825000 -12.800000 115 115 115 
1.900000 -4.825000 -12.800000 116 116 116 
1.925000 -4.825000 -12.800000 115 115 115 
2.400000 -5.938461 -15.753846 114 114 114 
1.975000 -4.825000 -12.800000 113 113 113 
0.815806 -1.968133 -5.221160 109 109 109 
0.825478 -1.966879 -5.217834 106 106 106 
0.835669 -1.966879 -5.217834 100 100 100 
0.845860 -1.966879 -5.217834 95 95 95 
0.856597 -1.968133 -5.221160 93 93 93 
0.867900 -1.970645 -5.227824 92 92 92 
0.878111 -1.970645 -5.227824 94 94 94 
0.888889 -1.971903 -5.231162 95 95 95 
0.899106 -1.971903 -5.231162 96 96 96 
0.909323 -1.971903 -5.231162 97 97 97 
0.919540 -1.971903 -5.231162 95 95 95 
0.930946 -1.974425 -5.237852 85 85 85 
0.964613 -2.023591 -5.368283 71 71 71 
0.975098 -2.023591 -5.368283 59 59 59 
0.983649 -2.019621 -5.357750 54 54 54 
0.989583 -2.010417 -5.333333 54 54 54 
1.000000 -2.010417 -5.333333 61 61 61 
1.010417 -2.010417 -5.333333 64 64 64 
1.020833 -2.010417 -5.333333 64 64 64 
1.031250 -2.010417 -5.333333 58 58 58 
1.041667 -2.010417 -5.333333 49 49 49 
1.052083 -2.010417 -5.333333 43 43 43 
1.062500 -2.010417 -5.333333 42 42 42 
1.072917 -2.010417 -5.333333 44 44 44 
1.083333 -2.010417 -5.333333 37 37 37 
1.093750 -2.010417 -5.333333 37 37 37 
1.104167 -2.010417 -5.333333 39 39 39 
1.114583 -2.010417 -5.333333 41 41 41 
1.125000 -2.010417 -5.333333 44 44 44 
1.135417 -2.010417 -5.333333 46 46 46 
1.145833 -2.010417 -5.333333 49 49 49 
1.156250 -2.010417 -5.333333 50 50 50 
1.166667 -2.010417 -5.333333 51 51 51 
1.177083 -2.010417 -5.333333 52 52 52 
1.187500 -2.010417 -5.333333 54 54 54 
1.197917 -2.010417 -5.333333 55 55 55 
1.208333 -2.010417 -5.333333 55 55 55 
1.218750 -2.010417 -5.333333 54 54 54 
1.229167 -2.010417 -5.333333 52 52 52 
1.239583 -2.010417 -5.333333 51 51 51 
1.250000 -2.010417 -5.333333 49 49 49 
1.260417 -2.010417 -5.333333 49 49 49 
1.270833 -2.010417 -5.333333 49 49 49 
1.281250 -2.010417 -5.333333 48 48 48 
1.291667 -2.010417 -5.333333 48 48 48 
1.302083 -2.010417 -5.333333 47 47 47 
1.312500 -2.010417 -5.333333 47 47 47 
1.322917 -2.010417 -5.333333 47 47 47 
1.333333 -2.010417 -5.333333 42 42 42 
1.457627 -2.180791 -5.785311 42 42 42 
1.477273 -2.193182 -5.818182 43 43 43 
1.488636 -2.193182 -5.818182 43 43 43 
8.250000 -12.062500 -32.000000 43 43 43 
8.312500 -12.062500 -32.000000 43 43 43 
8.375000 -12.062500 -32.000000 44 44 44 
8.437500 -12.062500 -32.000000 44 44 44 
8.500000 -12.062500 -32.000000 56 56 56 
8.562500 -12.062500 -32.000000 58 58 58 
8.625000 -12.062500 -32.000000 62 62 62 
8.687500 -12.062500 -32.000000 65 65 65 
8.750000 -12.062500 -32.000000 68 68 68 
1.593220 -2.180791 -5.785311 68 68 68 
1.485939 -2.019621 -5.357750 67 67 67 
1.489583 -2.010417 -5.333333 66 66 66 
1.500000 -2.010417 -5.333333 65 65 65 
1.510417 -2.010417 -5.333333 65 65 65 
1.520833 -2.010417 -5.333333 66 66 66 
1.531250 -2.010417 -5.333333 66 66 66 
1.541667 -2.010417 -5.333333 67 67 67 
1.552083 -2.010417 -5.333333 68 68 68 
1.562500 -2.010417 -5.333333 68 68 68 
1.572917 -2.010417 -5.333333 69 69 69 
1.583333 -2.010417 -5.333333 68 68 68 
1.593750 -2.010417 -5.333333 70 70 70 
1.604167 -2.010417 -5.333333 72 72 72 
1.614583 -2.010417 -5.333333 73 73 73 
1.625000 -2.010417 -5.333333 74 74 74 
1.635417 -2.010417 -5.333333 74 74 74 
1.645833 -2.010417 -5.333333 73 73 73 
1.656250 -2.010417 -5.333333 72 72 72 
1.666667 -2.010417 -5.333333 72 72 72 
1.677083 -2.010417 -5.333333 72 72 72 
3.296875 -3.015625 -8.000000 70 70 70 
3.312500 -3.015625 -8.000000 70 70 70 
3.328125 -3.015625 -8.000000 70 70 70 
3.013889 -2.680556 -7.111111 70 70 70 
3.027778 -2.680556 -7.111111 70 70 70 
2.782609 -2.397516 -6.360249 70 70 70 
2.556818 -2.193182 -5.818182 70 70 70 
2.568182 -2.193182 -5.818182 70 70 70 
2.579545 -2.193182 -5.818182 70 70 70 
2.590909 -2.193182 -5.818182 70 70 70 
2.602273 -2.193182 -5.818182 70 70 70 
2.613636 -2.193182 -5.818182 70 70 70 
2.610169 -2.180791 -5.785311 70 70 70 
2.563536 -2.132597 -5.657459 62 62 62 
2.565726 -2.125258 -5.637990 62 62 62 
2.576738 -2.125258 -5.637990 62 62 62 
2.664808 -2.151916 -5.708711 62 62 62 
2.674095 -2.150418 -5.704735 62 62 62 
2.681502 -2.147427 -5.696801 62 62 62 
2.683299 -2.139986 -5.677062 63 63 63 
2.681379 -2.129655 -5.649655 64 64 64 
2.685007 -2.123796 -5.634113 64 64 64 
2.692308 -2.120879 -5.626374 65 65 65 
2.695890 -2.115068 -5.610959 66 66 66 
2.692098 -2.103542 -5.580381 66 66 66 
2.702997 -2.103542 -5.580381 64 64 64 
2.691892 -2.086487 -5.535135 63 63 63 
2.664890 -2.057295 -5.457695 63 63 63 
2.652576 -2.039630 -5.410832 62 62 62 
2.650887 -2.030243 -5.385931 61 61 61 
2.650949 -2.022266 -5.364768 61 61 61 
2.661428 -2.022266 -5.364768 60 60 60 
2.566488 -1.841383 -4.884913 83 83 83 
2.571429 -1.838095 -4.876191 84 84 84 
2.573294 -1.832641 -4.861721 84 84 84 
2.566038 -1.820755 -4.830189 82 82 82 
2.575472 -1.820755 -4.830189 82 82 82 
5.540000 -3.860000 -10.240000 88 88 88 
5.539228 -3.845579 -10.201743 90 90 90 
5.559153 -3.845579 -10.201743 90 90 90 
5.586035 -3.850374 -10.214464 87 87 87 
15.944445 -10.722222 -28.444445 83 83 83 
16.000000 -10.722222 -28.444445 91 91 91 
15.944828 -10.648276 -28.248276 89 89 89 
15.836735 -10.503402 -27.863945 81 81 81 
15.783784 -10.432432 -27.675676 80 80 80 
15.626667 -10.293333 -27.306667 82 82 82 
15.680000 -10.293333 -27.306667 84 84 84 
15.945946 -10.432432 -27.675676 86 86 86 
16.108843 -10.503402 -27.863945 83 83 83 
-11.828571 -11.085714 -29.257143 110 110 110 
-11.771428 -11.085714 -29.257143 132 132 132 
-11.714286 -11.085714 -29.257143 170 170 170 
-11.657143 -11.085714 -29.257143 212 212 212 
-11.600000 -11.085714 -29.257143 239 239 239 
-11.542857 -11.085714 -29.257143 245 245 245 
-11.363957 -10.968198 -28.946997 240 240 240 
-11.267606 -10.929578 -28.845070 238 238 238 
-11.055555 -10.777778 -28.444445 240 240 240 
-11.000000 -10.777778 -28.444445 243 243 243 
-10.868965 -10.703448 -28.248276 245 245 245 
-10.776632 -10.666667 -28.151203 245 245 245 
-10.648464 -10.593857 -27.959044 244 244 244 
-10.381271 -10.381271 -27.397993 241 241 241 
-10.225165 -10.278146 -27.125828 240 240 240 
-10.105263 -10.210526 -26.947369 202 202 202 
-10.019672 -10.177050 -26.859016 175 175 175 
-2.371295 -2.421217 -6.390016 146 146 146 
-2.356976 -2.419330 -6.385035 138 138 138 
-2.344505 -2.419330 -6.385035 148 148 148 
-2.337500 -2.425000 -6.400000 160 160 160 
-2.325000 -2.425000 -6.400000 163 163 163 
-2.316119 -2.428795 -6.410016 160 160 160 
-2.309020 -2.434510 -6.425098 116 116 116 
-2.307329 -2.446021 -6.455477 108 108 108 
-2.301976 -2.453755 -6.475889 104 104 104 
-2.291139 -2.455696 -6.481013 117 117 117 
-2.278481 -2.455696 -6.481013 147 147 147 
-2.264032 -2.453755 -6.475889 178 178 178 
-2.253165 -2.455696 -6.481013 196 196 196 
-1.588850 -1.802555 -4.757259 237 237 237 
-1.578642 -1.801509 -4.754498 241 241 241 
-1.570267 -1.802555 -4.757259 246 246 246 
-2.385093 -2.754215 -7.268856 245 245 245 
-2.370896 -2.754215 -7.268856 247 247 247 
-2.348364 -2.744474 -7.243148 240 240 240 
-2.334218 -2.744474 -7.243148 231 231 231 
-2.311894 -2.734802 -7.217621 237 237 237 
-2.279720 -2.713287 -7.160839 246 246 246 
-1.724551 -2.065203 -5.450432 236 236 236 
-1.712766 -2.063830 -5.446808 214 214 214 
-1.702128 -2.063830 -5.446808 132 132 132 
-1.694870 -2.067955 -5.457695 157 157 157 
-1.686458 -2.070714 -5.464977 193 193 193 
-1.685906 -2.083221 -5.497987 224 224 224 
-1.671802 -2.079036 -5.486939 242 242 242 
-1.658863 -2.076254 -5.479599 249 249 249 
-1.644860 -2.072096 -5.468625 248 248 248 
-1.627660 -2.063830 -5.446808 246 246 246 
-1.606341 -2.050198 -5.410832 243 243 243 
-1.518542 -1.950974 -5.148963 237 237 237 
-1.506591 -1.948525 -5.142498 232 232 232 
-1.501259 -1.954660 -5.158690 234 234 234 
-1.564738 -2.137741 -5.641873 175 175 175 
-1.553719 -2.137741 -5.641873 152 152 152 
-1.542700 -2.137741 -5.641873 149 149 149 
-1.539100 -2.148097 -5.669204 149 149 149 
-1.530146 -2.151074 -5.677062 141 141 141 
-1.522222 -2.155555 -5.688889 131 131 131 
-1.511111 -2.155555 -5.688889 141 141 141 
-1.500000 -2.155555 -5.688889 139 139 139 
-1.488889 -2.155555 -5.688889 140 140 140 
-2.146965 -3.305644 -8.724174 240 240 240 
-2.129925 -3.305644 -8.724174 241 241 241 
-2.110638 -3.302128 -8.714893 246 246 246 
-2.091392 -3.298619 -8.705632 239 239 239 
-2.072187 -3.295117 -8.696391 208 208 208 
-2.053022 -3.291622 -8.687169 174 174 174 
-2.036055 -3.291622 -8.687169 117 117 117 
-2.034188 -3.316239 -8.752137 83 83 83 
-2.017094 -3.316239 -8.752137 54 54 54 
-2.000000 -3.316239 -8.752137 47 47 47 
-2.017391 -3.373913 -8.904347 43 43 43 
-2.000000 -3.373913 -8.904347 32 32 32 
-2.017699 -3.433628 -9.061947 29 29 29 
-2.000000 -3.433628 -9.061947 36 36 36 
-1.982301 -3.433628 -9.061947 21 21 21 
-1.964602 -3.433628 -9.061947 17 17 17 
-1.946903 -3.433628 -9.061947 12 12 12 
-1.929204 -3.433628 -9.061947 10 10 10 
-1.911504 -3.433628 -9.061947 11 11 11 
-2.249671 -4.078844 -10.764783 11 11 11 
-2.228647 -4.078844 -10.764783 9 9 9 
-2.207622 -4.078844 -10.764783 6 6 6 
-2.125000 -4.041667 -10.666667 10 10 10 
-2.104167 -4.041667 -10.666667 10 10 10 
-1.942999 -3.846344 -10.151177 10 10 10 
-1.899633 -3.799266 -10.026928 10 10 10 
-1.859564 -3.757869 -9.917676 7 7 7 
-1.837969 -3.753325 -9.905684 10 10 10 
-1.373961 -2.866113 -7.564174 11 11 11 
-1.351699 -2.850321 -7.522498 10 10 10 
-1.304659 -2.781362 -7.340502 11 11 11 
-1.286863 -2.773905 -7.320822 15 15 15 
-1.272565 -2.773905 -7.320822 20 20 20 
-1.289377 -2.842491 -7.501832 45 45 45 
-1.274725 -2.842491 -7.501832 47 47 47 
-1.255474 -2.832117 -7.474452 25 25 25 
-1.240876 -2.832117 -7.474452 9 9 9 
-1.221818 -2.821818 -7.447273 17 17 17 
-1.211679 -2.832117 -7.474452 13 13 13 
-1.197080 -2.832117 -7.474452 5 5 5 
-1.236641 -2.961832 -7.816794 15 15 15 
-1.222541 -2.964661 -7.824260 14 14 14 
-1.207259 -2.964661 -7.824260 10 10 10 
-1.194258 -2.970335 -7.839234 9 9 9 
-1.188042 -2.993250 -7.899711 12 12 12 
-1.179437 -3.010669 -7.945684 13 13 13 
-1.168452 -3.022395 -7.976631 17 17 17 
-1.155122 -3.028293 -7.992195 36 36 36 
-1.176234 -3.125881 -8.249748 57 57 57 
-1.160121 -3.125881 -8.249748 69 69 69 
-1.142857 -3.122736 -8.241448 73 73 73 
-1.126761 -3.122736 -8.241448 79 79 79 
-1.112903 -3.129032 -8.258064 80 80 80 
-1.102330 -3.144883 -8.299899 80 80 80 
-1.089431 -3.154472 -8.325203 79 79 79 
-1.073171 -3.154472 -8.325203 82 82 82 
-1.056911 -3.154472 -8.325203 85 85 85 
-0.975418 -3.052114 -8.055064 81 81 81 
-0.953125 -3.031250 -8.000000 81 81 81 
-0.937500 -3.031250 -8.000000 81 81 81 
-0.921875 -3.031250 -8.000000 81 81 81 
-0.906250 -3.031250 -8.000000 81 81 81 
-0.890625 -3.031250 -8.000000 81 81 81 
-0.875000 -3.031250 -8.000000 81 81 81 
-0.859375 -3.031250 -8.000000 81 81 81 
-0.843750 -3.031250 -8.000000 81 81 81 
-0.828125 -3.031250 -8.000000 81 81 81 
-0.812500 -3.031250 -8.000000 81 81 81 
-0.796875 -3.031250 -8.000000 81 81 81 
-0.781250 -3.031250 -8.000000 81 81 81 
-0.759690 -3.007752 -7.937984 81 81 81 
-0.738462 -2.984615 -7.876923 84 84 84 
-0.723077 -2.984615 -7.876923 147 147 147 
-0.709056 -2.990366 -7.892100 231 231 231 
-0.694310 -2.993250 -7.899711 255 255 255 
-0.678881 -2.993250 -7.899711 239 239 239 
-0.663452 -2.993250 -7.899711 243 243 243 
-0.648023 -2.993250 -7.899711 255 255 255 
-0.632594 -2.993250 -7.899711 243 243 243 
-0.616570 -2.990366 -7.892100 246 246 246 
-0.601156 -2.990366 -7.892100 230 230 230 
-0.586307 -2.993250 -7.899711 178 178 178 
-0.507692 -2.984615 -7.876923 234 234 234 
-0.491363 -2.978887 -7.861804 243 243 243 
-0.144344 -2.154060 -5.684941 195 195 195 
-0.133056 -2.151074 -5.677062 210 210 210 
-0.121968 -2.151074 -5.677062 209 209 209 
-0.110880 -2.151074 -5.677062 206 206 206 
-0.079545 -2.204545 -5.818182 193 193 193 
-0.068182 -2.204545 -5.818182 184 184 184 
-0.056818 -2.204545 -5.818182 174 174 174 
-0.045455 -2.204545 -5.818182 166 166 166 
-0.034091 -2.204545 -5.818182 162 162 162 
-0.022727 -2.204545 -5.818182 161 161 161 
0.072917 -2.020833 -5.333333 165 165 165 
0.083333 -2.020833 -5.333333 155 155 155 
0.093750 -2.020833 -5.333333 155 155 155 
0.104167 -2.020833 -5.333333 153 153 153 
0.114583 -2.020833 -5.333333 151 151 151 
0.125000 -2.020833 -5.333333 149 149 149 
0.135417 -2.020833 -5.333333 146 146 146 
0.145833 -2.020833 -5.333333 145 145 145 
0.156250 -2.020833 -5.333333 144 144 144 
0.166667 -2.020833 -5.333333 141 141 141 
0.177083 -2.020833 -5.333333 141 141 141 
0.187500 -2.020833 -5.333333 140 140 140 
0.197917 -2.020833 -5.333333 140 140 140 
0.208333 -2.020833 -5.333333 139 139 139 
0.218750 -2.020833 -5.333333 138 138 138 
0.229167 -2.020833 -5.333333 138 138 138 
0.239583 -2.020833 -5.333333 137 137 137 
0.250000 -2.020833 -5.333333 137 137 137 
0.260417 -2.020833 -5.333333 136 136 136 
0.270833 -2.020833 -5.333333 135 135 135 
0.281250 -2.020833 -5.333333 133 133 133 
0.291667 -2.020833 -5.333333 129 129 129 
0.327684 -2.192091 -5.785311 125 125 125 
0.338983 -2.192091 -5.785311 121 121 121 
0.350282 -2.192091 -5.785311 119 119 119 
0.361582 -2.192091 -5.785311 104 104 104 
0.372881 -2.192091 -5.785311 108 108 108 
0.384181 -2.192091 -5.785311 112 112 112 
0.395480 -2.192091 -5.785311 111 111 111 
0.375000 -2.020833 -5.333333 106 106 106 
0.385417 -2.020833 -5.333333 101 101 101 
2.184615 -5.969231 -15.753846 109 109 109 
1.819905 -4.903634 -12.941548 113 113 113 
1.825000 -4.850000 -12.800000 114 114 114 
1.850000 -4.850000 -12.800000 115 115 115 
1.875000 -4.850000 -12.800000 116 116 116 
1.900000 -4.850000 -12.800000 115 115 115 
1.925000 -4.850000 -12.800000 114 114 114 
1.950000 -4.850000 -12.800000 113 113 113 
1.975000 -4.850000 -12.800000 111 111 111 
0.816327 -1.979592 -5.224490 111 111 111 
0.826004 -1.978330 -5.221160 110 110 110 
0.836201 -1.978330 -5.221160 107 107 107 
0.846399 -1.978330 -5.221160 104 104 104 
0.857143 -1.979592 -5.224490 100 100 100 
0.867900 -1.980855 -5.227824 97 97 97 
0.878672 -1.982120 -5.231162 95 95 95 
0.888889 -1.982120 -5.231162 94 94 94 
0.899106 -1.982120 -5.231162 91 91 91 
0.909323 -1.982120 -5.231162 95 95 95 
0.919540 -1.982120 -5.231162 98 98 98 
0.930946 -1.984655 -5.237852 96 96 96 
0.964613 -2.034076 -5.368283 90 90 90 
0.976378 -2.036745 -5.375328 85 85 85 
0.985583 -2.034076 -5.368283 83 83 83 
0.989583 -2.020833 -5.333333 82 82 82 
1.000000 -2.020833 -5.333333 89 89 89 
1.010417 -2.020833 -5.333333 91 91 91 
1.020833 -2.020833 -5.333333 90 90 90 
1.031250 -2.020833 -5.333333 84 84 84 
1.041667 -2.020833 -5.333333 75 75 75 
1.052083 -2.020833 -5.333333 67 67 67 
1.062500 -2.020833 -5.333333 64 64 64 
1.072917 -2.020833 -5.333333 63 63 63 
1.083333 -2.020833 -5.333333 58 58 58 
1.093750 -2.020833 -5.333333 58 58 58 
1.104167 -2.020833 -5.333333 58 58 58 
1.114583 -2.020833 -5.333333 59 59 59 
1.125000 -2.020833 -5.333333 61 61 61 
1.135417 -2.020833 -5.333333 64 64 64 
1.145833 -2.020833 -5.333333 67 67 67 
1.156250 -2.020833 -5.333333 68 68 68 
1.166667 -2.020833 -5.333333 72 72 72 
1.177083 -2.020833 -5.333333 73 73 73 
1.187500 -2.020833 -5.333333 74 74 74 
1.197917 -2.020833 -5.333333 75 75 75 
1.208333 -2.020833 -5.333333 75 75 75 
1.218750 -2.020833 -5.333333 74 74 74 
1.229167 -2.020833 -5.333333 73 73 73 
1.239583 -2.020833 -5.333333 72 72 72 
1.250000 -2.020833 -5.333333 74 74 74 
1.260417 -2.020833 -5.333333 73 73 73 
1.270833 -2.020833 -5.333333 72 72 72 
1.281250 -2.020833 -5.333333 71 71 71 
1.291667 -2.020833 -5.333333 69 69 69 
1.302083 -2.020833 -5.333333 68 68 68 
1.312500 -2.020833 -5.333333 67 67 67 
1.322917 -2.020833 -5.333333 66 66 66 
1.333333 -2.020833 -5.333333 54 54 54 
1.457627 -2.192091 -5.785311 55 55 55 
1.477273 -2.204545 -5.818182 56 56 56 
1.488636 -2.204545 -5.818182 57 57 57 
8.250000 -12.125000 -32.000000 59 59 59 
8.437500 -12.125000 -32.000000 62 62 62 
8.500000 -12.125000 -32.000000 76 76 76 
8.562500 -12.125000 -32.000000 76 76 76 
8.625000 -12.125000 -32.000000 76 76 76 
8.687500 -12.125000 -32.000000 75 75 75 
1.590909 -2.204545 -5.818182 73 73 73 
1.593220 -2.192091 -5.785311 70 70 70 
1.485939 -2.030085 -5.357750 67 67 67 
1.489583 -2.020833 -5.333333 65 65 65 
1.500000 -2.020833 -5.333333 67 67 67 
1.510417 -2.020833 -5.333333 68 68 68 
1.520833 -2.020833 -5.333333 68 68 68 
1.531250 -2.020833 -5.333333 69 69 69 
1.541667 -2.020833 -5.333333 70 70 70 
4.620155 -6.015504 -15.875969 70 70 70 
4.615385 -5.969231 -15.753846 71 71 71 
1.572917 -2.020833 -5.333333 71 71 71 
1.583333 -2.020833 -5.333333 68 68 68 
1.593750 -2.020833 -5.333333 70 70 70 
1.604167 -2.020833 -5.333333 72 72 72 
1.614583 -2.020833 -5.333333 73 73 73 
1.625000 -2.020833 -5.333333 74 74 74 
1.635417 -2.020833 -5.333333 74 74 74 
1.645833 -2.020833 -5.333333 73 73 73 
1.656250 -2.020833 -5.333333 72 72 72 
1.666667 -2.020833 -5.333333 72 72 72 
1.677083 -2.020833 -5.333333 72 72 72 
3.296875 -3.031250 -8.000000 69 69 69 
3.312500 -3.031250 -8.000000 69 69 69 
3.328125 -3.031250 -8.000000 69 69 69 
3.013889 -2.694444 -7.111111 69 69 69 
3.027778 -2.694444 -7.111111 69 69 69 
2.782609 -2.409938 -6.360249 68 68 68 
2.556818 -2.204545 -5.818182 68 68 68 
2.568182 -2.204545 -5.818182 68 68 68 
2.579545 -2.204545 -5.818182 68 68 68 
2.590909 -2.204545 -5.818182 68 68 68 
2.602273 -2.204545 -5.818182 68 68 68 
2.613636 -2.204545 -5.818182 68 68 68 
2.610169 -2.192091 -5.785311 68 68 68 
2.563536 -2.143646 -5.657459 62 62 62 
2.563962 -2.134800 -5.634113 62 62 62 
2.574966 -2.134800 -5.634113 62 62 62 
2.672257 -2.169112 -5.724668 62 62 62 
2.675958 -2.163066 -5.708711 62 62 62 
2.683368 -2.160056 -5.700766 62 62 62 
2.685159 -2.152566 -5.680999 63 63 63 
2.683230 -2.142167 -5.653554 64 64 64 
2.686855 -2.136270 -5.637990 64 64 64 
2.694158 -2.133333 -5.630240 65 65 65 
2.697738 -2.127485 -5.614805 66 66 66 
2.693933 -2.115883 -5.584186 66 66 66 
2.704840 -2.115883 -5.584186 63 63 63 
2.693712 -2.098715 -5.538877 63 63 63 
2.664890 -2.067955 -5.457695 62 62 62 
2.652576 -2.050198 -5.410832 62 62 62 
2.650887 -2.040763 -5.385931 61 61 61 
2.649215 -2.031414 -5.361257 60 60 60 
2.659686 -2.031414 -5.361257 60 60 60 
2.566488 -1.850924 -4.884913 83 83 83 
2.572960 -1.848719 -4.879095 85 85 85 
2.573294 -1.842137 -4.861721 85 85 85 
2.566038 -1.830189 -4.830189 82 82 82 
2.575472 -1.830189 -4.830189 83 83 83 
5.546934 -3.884856 -10.252816 88 88 88 
5.560000 -3.880000 -10.240000 89 89 89 
5.566085 -3.870324 -10.214464 90 90 90 
5.600000 -3.880000 -10.240000 89 89 89 
15.625418 -10.381271 -27.397993 85 85 85 
15.574751 -10.312292 -27.215946 85 85 85 
15.627907 -10.312292 -27.215946 85 85 85 
15.733334 -10.346666 -27.306667 85 85 85 
-11.828571 -11.142858 -29.257143 122 122 122 
-11.771428 -11.142858 -29.257143 162 162 162 
-11.714286 -11.142858 -29.257143 204 204 204 
-11.657143 -11.142858 -29.257143 233 233 233 
-11.600000 -11.142858 -29.257143 246 246 246 
-11.460993 -11.063829 -29.049644 246 246 246 
-11.363957 -11.024735 -28.946997 242 242 242 
-11.267606 -10.985915 -28.845070 233 233 233 
-11.211267 -10.985915 -28.845070 236 236 236 
-11.000000 -10.833333 -28.444445 240 240 240 
-10.944445 -10.833333 -28.444445 243 243 243 
-10.813793 -10.758620 -28.248276 243 243 243 
-10.648464 -10.648464 -27.959044 242 242 242 
-10.416107 -10.469799 -27.489933 239 239 239 
-10.225165 -10.331126 -27.125828 237 237 237 
-10.105263 -10.263158 -26.947369 232 232 232 
-2.383775 -2.433697 -6.390016 204 204 204 
-2.371295 -2.433697 -6.390016 173 173 173 
-2.356976 -2.431800 -6.385035 154 154 154 
-2.344505 -2.431800 -6.385035 140 140 140 
-2.337500 -2.437500 -6.400000 122 122 122 
-2.325000 -2.437500 -6.400000 105 105 105 
-2.317933 -2.443226 -6.415035 95 95 95 
-2.310832 -2.448980 -6.430141 110 110 110 
-2.310971 -2.462510 -6.465667 124 124 124 
-2.303797 -2.468354 -6.481013 136 136 136 
-2.291139 -2.468354 -6.481013 139 139 139 
-2.278481 -2.468354 -6.481013 142 142 142 
-2.265823 -2.468354 -6.481013 150 150 150 
-2.253165 -2.468354 -6.481013 157 157 157 
-2.414035 -2.736842 -7.185965 242 242 242 
-1.592549 -1.816065 -4.768335 242 242 242 
-1.578642 -1.810795 -4.754498 239 239 239 
-1.571180 -1.812899 -4.760023 238 238 238 
-2.385093 -2.768412 -7.268856 245 245 245 
-2.370896 -2.768412 -7.268856 247 247 247 
-2.340088 -2.748899 -7.217621 239 239 239 
-2.321900 -2.744063 -7.204925 232 232 232 
-2.299737 -2.734443 -7.179667 242 242 242 
-2.275742 -2.722513 -7.148342 247 247 247 
-2.251955 -2.710686 -7.117290 214 214 214 
-1.712766 -2.074468 -5.446808 169 169 169 
-1.702128 -2.074468 -5.446808 114 114 114 
-1.694870 -2.078614 -5.457695 157 157 157 
-1.671802 -2.089752 -5.486939 240 240 240 
-1.658863 -2.086957 -5.479599 242 242 242 
-1.638298 -2.074468 -5.446808 243 243 243 
-1.621192 -2.066225 -5.425166 242 242 242 
-1.526679 -1.958569 -5.142498 248 248 248 
-1.511890 -1.952441 -5.126408 219 219 219 
-1.500938 -1.951220 -5.123202 196 196 196 
-1.488140 -1.947566 -5.113608 202 202 202 
-1.436893 -1.893204 -4.970874 224 224 224 
-1.560440 -2.142857 -5.626374 190 190 190 
-1.338078 -1.850534 -4.858838 171 171 171 
-1.322314 -1.841795 -4.835891 166 166 166 
-1.311321 -1.839623 -4.830189 163 163 163 
-1.528028 -2.159169 -5.669204 156 156 156 
-1.522222 -2.166667 -5.688889 148 148 148 
-1.511111 -2.166667 -5.688889 151 151 151 
-1.500000 -2.166667 -5.688889 147 147 147 
-1.489924 -2.168172 -5.692842 150 150 150 
-2.169492 -3.305085 -8.677966 245 245 245 
-2.150265 -3.301587 -8.668783 244 244 244 
-2.140127 -3.312102 -8.696391 242 242 242 
-2.125398 -3.315622 -8.705632 243 243 243 
-2.108395 -3.315622 -8.705632 244 244 244 
-2.089172 -3.312102 -8.696391 228 228 228 
-2.069989 -3.308590 -8.687169 186 186 186 
-2.050848 -3.305085 -8.677966 144 144 144 
-2.033898 -3.305085 -8.677966 85 85 85 
-2.034188 -3.333333 -8.752137 62 62 62 
-2.017094 -3.333333 -8.752137 43 43 43 
-2.000000 -3.333333 -8.752137 41 41 41 
-2.017391 -3.391304 -8.904347 40 40 40 
-2.000000 -3.391304 -8.904347 33 33 33 
-2.017699 -3.451327 -9.061947 29 29 29 
-2.000000 -3.451327 -9.061947 32 32 32 
-1.982301 -3.451327 -9.061947 20 20 20 
-1.964602 -3.451327 -9.061947 16 16 16 
-1.946903 -3.451327 -9.061947 11 11 11 
-1.929204 -3.451327 -9.061947 10 10 10 
-2.228647 -4.099869 -10.764783 10 10 10 
-2.207622 -4.099869 -10.764783 7 7 7 
-2.125000 -4.062500 -10.666667 10 10 10 
-2.104167 -4.062500 -10.666667 10 10 10 
-2.083333 -4.062500 -10.666667 10 10 10 
-1.919217 -3.818850 -10.026928 10 10 10 
-1.894994 -3.809524 -10.002442 10 10 10 
-1.857316 -3.772672 -9.905684 7 7 7 
-1.818182 -3.732057 -9.799043 10 10 10 
-1.799043 -3.732057 -9.799043 12 12 12 
-1.372694 -2.878229 -7.557196 11 11 11 
-1.350459 -2.862385 -7.515596 10 10 10 
-1.304659 -2.795699 -7.340502 11 11 11 
-1.286863 -2.788204 -7.320822 15 15 15 
-1.272565 -2.788204 -7.320822 20 20 20 
-1.289377 -2.857143 -7.501832 40 40 40 
-1.274725 -2.857143 -7.501832 47 47 47 
-1.255474 -2.846715 -7.474452 28 28 28 
-1.240876 -2.846715 -7.474452 10 10 10 
-1.226277 -2.846715 -7.474452 16 16 16 
-1.211679 -2.846715 -7.474452 14 14 14 
-1.197080 -2.846715 -7.474452 7 7 7 
-1.230769 -2.962963 -7.779677 14 14 14 
-1.221374 -2.977099 -7.816794 13 13 13 
-1.207259 -2.979943 -7.824260 9 9 9 
-1.203472 -3.008679 -7.899711 10 10 10 
-1.194956 -3.026188 -7.945684 13 13 13 
-1.182879 -3.035019 -7.968872 13 13 13 
-1.168452 -3.037975 -7.976631 17 17 17 
-1.155122 -3.043902 -7.992195 34 34 34 
-1.176234 -3.141994 -8.249748 54 54 54 
-1.160121 -3.141994 -8.249748 67 67 67 
-1.142857 -3.138833 -8.241448 72 72 72 
-1.127895 -3.141994 -8.249748 77 77 77 
-1.114026 -3.148335 -8.266397 79 79 79 
-1.101215 -3.157895 -8.291498 78 78 78 
-1.089431 -3.170732 -8.325203 78 78 78 
-1.073171 -3.170732 -8.325203 80 80 80 
-0.991150 -3.067847 -8.055064 80 80 80 
-0.975418 -3.067847 -8.055064 80 80 80 
-0.953125 -3.046875 -8.000000 80 80 80 
-0.937500 -3.046875 -8.000000 80 80 80 
-0.921875 -3.046875 -8.000000 80 80 80 
-0.906250 -3.046875 -8.000000 80 80 80 
-0.890625 -3.046875 -8.000000 80 80 80 
-0.875000 -3.046875 -8.000000 80 80 80 
-0.859375 -3.046875 -8.000000 80 80 80 
-0.843750 -3.046875 -8.000000 80 80 80 
-0.828125 -3.046875 -8.000000 80 80 80 
-0.812500 -3.046875 -8.000000 80 80 80 
-0.796875 -3.046875 -8.000000 80 80 80 
-0.781250 -3.046875 -8.000000 80 80 80 
-0.759690 -3.023256 -7.937984 80 80 80 
-0.738462 -3.000000 -7.876923 86 86 86 
-0.723077 -3.000000 -7.876923 163 163 163 
-0.708373 -3.002887 -7.884504 241 241 241 
-0.693642 -3.005780 -7.892100 255 255 255 
-0.678881 -3.008679 -7.899711 241 241 241 
-0.663452 -3.008679 -7.899711 241 241 241 
-0.648023 -3.008679 -7.899711 249 249 249 
-0.632594 -3.008679 -7.899711 244 244 244 
-0.617165 -3.008679 -7.899711 246 246 246 
-0.601736 -3.008679 -7.899711 214 214 214 
-0.586873 -3.011583 -7.907336 145 145 145 
-0.571981 -3.014493 -7.914976 166 166 166 
-0.556522 -3.014493 -7.914976 225 225 225 
-0.541063 -3.014493 -7.914976 240 240 240 
-0.523580 -3.002887 -7.884504 247 247 247 
-0.506718 -2.994242 -7.861804 234 234 234 
-0.490421 -2.988506 -7.846743 242 242 242 
-0.474187 -2.982792 -7.831740 242 242 242 
-0.456274 -2.965780 -7.787072 236 236 236 
-0.132872 -2.159169 -5.669204 206 206 206 
-0.121799 -2.159169 -5.669204 213 213 213 
-0.110727 -2.159169 -5.669204 213 213 213 
-0.100069 -2.168172 -5.692842 214 214 214 
-0.090395 -2.203390 -5.785311 203 203 203 
-0.079545 -2.215909 -5.818182 198 198 198 
-0.068182 -2.215909 -5.818182 190 190 190 
-0.056818 -2.215909 -5.818182 181 181 181 
